279120.00 5600700.00 546.49
279140.00 5600700.00 545.40
279160.00 5600700.00 543.40
279180.00 5600700.00 542.44
279200.00 5600700.00 541.56
279220.00 5600700.00 540.45
279240.00 5600700.00 539.35
279260.00 5600700.00 538.77
279280.00 5600700.00 537.71
279300.00 5600700.00 536.51
279320.00 5600700.00 535.67
279340.00 5600700.00 534.68
279360.00 5600700.00 534.10
279380.00 5600700.00 533.01
279400.00 5600700.00 532.95
279420.00 5600700.00 532.47
279440.00 5600700.00 532.08
279460.00 5600700.00 531.52
279480.00 5600700.00 531.18
279500.00 5600700.00 530.83
279520.00 5600700.00 530.64
279540.00 5600700.00 530.38
279560.00 5600700.00 530.49
279580.00 5600700.00 530.58
279600.00 5600700.00 530.54
279840.00 5600700.00 524.89
279860.00 5600700.00 524.44
279880.00 5600700.00 523.38
279900.00 5600700.00 522.13
279920.00 5600700.00 521.33
279940.00 5600700.00 520.44
279960.00 5600700.00 519.39
279980.00 5600700.00 519.68
279100.00 5600720.00 548.12
279120.00 5600720.00 546.83
279140.00 5600720.00 545.28
279160.00 5600720.00 543.88
279180.00 5600720.00 542.66
279200.00 5600720.00 541.55
279220.00 5600720.00 540.16
279240.00 5600720.00 539.30
279260.00 5600720.00 538.42
279280.00 5600720.00 537.44
279300.00 5600720.00 536.38
279320.00 5600720.00 535.74
279340.00 5600720.00 534.77
279360.00 5600720.00 534.25
279380.00 5600720.00 533.40
279400.00 5600720.00 532.78
279420.00 5600720.00 532.05
279440.00 5600720.00 531.48
279460.00 5600720.00 531.10
279480.00 5600720.00 530.52
279500.00 5600720.00 530.17
279520.00 5600720.00 529.77
279540.00 5600720.00 529.74
279560.00 5600720.00 529.48
279580.00 5600720.00 529.52
279600.00 5600720.00 530.14
279620.00 5600720.00 529.80
279640.00 5600720.00 529.69
279660.00 5600720.00 529.57
279800.00 5600720.00 526.70
279820.00 5600720.00 526.28
279840.00 5600720.00 525.55
279860.00 5600720.00 525.01
279880.00 5600720.00 523.95
279900.00 5600720.00 522.01
279920.00 5600720.00 521.14
279940.00 5600720.00 520.44
279960.00 5600720.00 519.88
279980.00 5600720.00 521.50
279080.00 5600740.00 550.35
279100.00 5600740.00 548.92
279120.00 5600740.00 547.44
279140.00 5600740.00 545.89
279160.00 5600740.00 543.93
279180.00 5600740.00 542.92
279200.00 5600740.00 541.01
279220.00 5600740.00 540.60
279240.00 5600740.00 539.36
279260.00 5600740.00 538.18
279280.00 5600740.00 537.38
279300.00 5600740.00 536.77
279320.00 5600740.00 535.55
279340.00 5600740.00 534.88
279360.00 5600740.00 534.25
279380.00 5600740.00 533.50
279400.00 5600740.00 532.71
279420.00 5600740.00 532.08
279440.00 5600740.00 531.51
279460.00 5600740.00 530.89
279480.00 5600740.00 530.29
279500.00 5600740.00 529.99
279520.00 5600740.00 529.56
279540.00 5600740.00 529.15
279560.00 5600740.00 528.88
279580.00 5600740.00 529.07
279600.00 5600740.00 529.11
279620.00 5600740.00 529.24
279640.00 5600740.00 529.31
279660.00 5600740.00 529.30
279680.00 5600740.00 529.18
279700.00 5600740.00 528.85
279720.00 5600740.00 528.36
279780.00 5600740.00 527.36
279800.00 5600740.00 526.86
279820.00 5600740.00 526.31
279840.00 5600740.00 525.43
279860.00 5600740.00 524.53
279880.00 5600740.00 523.37
279900.00 5600740.00 521.80
279920.00 5600740.00 520.80
279940.00 5600740.00 520.50
279960.00 5600740.00 521.43
279980.00 5600740.00 523.12
279080.00 5600760.00 550.56
279100.00 5600760.00 548.93
279120.00 5600760.00 547.22
279140.00 5600760.00 546.04
279160.00 5600760.00 544.72
279180.00 5600760.00 542.72
279200.00 5600760.00 541.87
279220.00 5600760.00 540.65
279240.00 5600760.00 539.62
279260.00 5600760.00 538.40
279280.00 5600760.00 537.32
279300.00 5600760.00 536.76
279320.00 5600760.00 535.67
279340.00 5600760.00 535.08
279360.00 5600760.00 534.09
279380.00 5600760.00 533.45
279400.00 5600760.00 532.67
279420.00 5600760.00 532.29
279440.00 5600760.00 531.39
279460.00 5600760.00 530.66
279480.00 5600760.00 530.21
279500.00 5600760.00 529.58
279520.00 5600760.00 529.52
279540.00 5600760.00 529.09
279560.00 5600760.00 528.82
279580.00 5600760.00 528.43
279600.00 5600760.00 528.49
279620.00 5600760.00 528.53
279640.00 5600760.00 528.83
279660.00 5600760.00 528.82
279680.00 5600760.00 528.38
279700.00 5600760.00 528.60
279720.00 5600760.00 528.29
279740.00 5600760.00 528.19
279760.00 5600760.00 527.84
279780.00 5600760.00 527.29
279800.00 5600760.00 527.01
279820.00 5600760.00 526.72
279840.00 5600760.00 525.25
279860.00 5600760.00 523.79
279880.00 5600760.00 522.50
279900.00 5600760.00 521.43
279920.00 5600760.00 520.78
279940.00 5600760.00 522.23
279960.00 5600760.00 524.44
279980.00 5600760.00 524.09
279060.00 5600780.00 551.93
279080.00 5600780.00 550.55
279100.00 5600780.00 549.01
279120.00 5600780.00 547.19
279140.00 5600780.00 545.84
279160.00 5600780.00 544.77
279180.00 5600780.00 543.59
279200.00 5600780.00 542.11
279220.00 5600780.00 540.83
279240.00 5600780.00 539.80
279260.00 5600780.00 538.56
279280.00 5600780.00 537.36
279300.00 5600780.00 536.54
279320.00 5600780.00 536.10
279340.00 5600780.00 535.17
279360.00 5600780.00 534.23
279380.00 5600780.00 533.38
279400.00 5600780.00 532.58
279420.00 5600780.00 531.89
279440.00 5600780.00 531.28
279460.00 5600780.00 530.69
279480.00 5600780.00 530.03
279500.00 5600780.00 529.72
279520.00 5600780.00 529.16
279540.00 5600780.00 528.78
279560.00 5600780.00 528.78
279580.00 5600780.00 528.05
279600.00 5600780.00 528.08
279620.00 5600780.00 528.12
279640.00 5600780.00 528.09
279660.00 5600780.00 527.97
279680.00 5600780.00 527.74
279700.00 5600780.00 527.72
279720.00 5600780.00 527.80
279740.00 5600780.00 527.76
279760.00 5600780.00 527.50
279780.00 5600780.00 527.27
279800.00 5600780.00 526.55
279820.00 5600780.00 525.29
279840.00 5600780.00 523.66
279860.00 5600780.00 522.66
279880.00 5600780.00 521.56
279900.00 5600780.00 521.27
279920.00 5600780.00 521.86
279940.00 5600780.00 524.19
279960.00 5600780.00 525.37
279980.00 5600780.00 525.51
279060.00 5600800.00 552.11
279080.00 5600800.00 550.53
279100.00 5600800.00 548.99
279120.00 5600800.00 547.50
279140.00 5600800.00 546.08
279160.00 5600800.00 544.63
279180.00 5600800.00 543.27
279200.00 5600800.00 542.75
279220.00 5600800.00 540.96
279240.00 5600800.00 539.81
279260.00 5600800.00 538.53
279280.00 5600800.00 537.43
279300.00 5600800.00 536.39
279320.00 5600800.00 535.96
279340.00 5600800.00 535.52
279360.00 5600800.00 534.63
279380.00 5600800.00 533.64
279400.00 5600800.00 532.88
279420.00 5600800.00 531.95
279440.00 5600800.00 531.28
279460.00 5600800.00 530.72
279480.00 5600800.00 530.64
279500.00 5600800.00 529.88
279520.00 5600800.00 529.15
279540.00 5600800.00 528.16
279560.00 5600800.00 528.30
279580.00 5600800.00 527.74
279600.00 5600800.00 527.57
279620.00 5600800.00 527.43
279640.00 5600800.00 527.23
279660.00 5600800.00 527.02
279680.00 5600800.00 526.84
279700.00 5600800.00 526.47
279720.00 5600800.00 526.39
279740.00 5600800.00 526.84
279760.00 5600800.00 527.07
279780.00 5600800.00 526.08
279800.00 5600800.00 524.84
279820.00 5600800.00 523.32
279840.00 5600800.00 522.43
279860.00 5600800.00 522.04
279880.00 5600800.00 521.64
279900.00 5600800.00 522.35
279920.00 5600800.00 523.97
279940.00 5600800.00 526.42
279960.00 5600800.00 527.00
279980.00 5600800.00 527.14
279060.00 5600820.00 551.98
279080.00 5600820.00 550.72
279100.00 5600820.00 549.29
279120.00 5600820.00 547.96
279140.00 5600820.00 546.32
279160.00 5600820.00 545.05
279180.00 5600820.00 543.30
279200.00 5600820.00 542.55
279220.00 5600820.00 541.37
279240.00 5600820.00 540.06
279260.00 5600820.00 538.65
279280.00 5600820.00 537.42
279300.00 5600820.00 536.54
279320.00 5600820.00 536.15
279340.00 5600820.00 535.44
279360.00 5600820.00 534.93
279380.00 5600820.00 534.06
279400.00 5600820.00 533.40
279420.00 5600820.00 532.54
279440.00 5600820.00 531.82
279460.00 5600820.00 531.16
279480.00 5600820.00 530.23
279500.00 5600820.00 529.72
279520.00 5600820.00 529.13
279540.00 5600820.00 528.38
279560.00 5600820.00 527.84
279580.00 5600820.00 527.49
279600.00 5600820.00 526.84
279620.00 5600820.00 527.07
279640.00 5600820.00 526.40
279660.00 5600820.00 526.16
279680.00 5600820.00 525.93
279700.00 5600820.00 525.77
279720.00 5600820.00 525.58
279740.00 5600820.00 525.71
279760.00 5600820.00 524.90
279780.00 5600820.00 524.08
279800.00 5600820.00 523.57
279820.00 5600820.00 522.55
279840.00 5600820.00 522.25
279860.00 5600820.00 522.16
279880.00 5600820.00 522.92
279900.00 5600820.00 524.45
279920.00 5600820.00 526.76
279940.00 5600820.00 527.71
279960.00 5600820.00 527.97
279980.00 5600820.00 528.17
279060.00 5600840.00 551.74
279080.00 5600840.00 550.73
279100.00 5600840.00 549.75
279120.00 5600840.00 548.12
279140.00 5600840.00 547.38
279160.00 5600840.00 545.64
279180.00 5600840.00 543.55
279200.00 5600840.00 542.95
279220.00 5600840.00 541.36
279240.00 5600840.00 540.18
279260.00 5600840.00 538.98
279280.00 5600840.00 537.65
279300.00 5600840.00 536.89
279320.00 5600840.00 536.41
279340.00 5600840.00 535.62
279360.00 5600840.00 535.00
279380.00 5600840.00 534.34
279400.00 5600840.00 533.46
279420.00 5600840.00 532.71
279440.00 5600840.00 532.20
279460.00 5600840.00 531.55
279480.00 5600840.00 530.75
279500.00 5600840.00 529.81
279520.00 5600840.00 529.39
279540.00 5600840.00 528.77
279560.00 5600840.00 528.16
279580.00 5600840.00 527.74
279600.00 5600840.00 527.10
279620.00 5600840.00 526.56
279640.00 5600840.00 526.31
279660.00 5600840.00 525.70
279680.00 5600840.00 525.71
279700.00 5600840.00 525.32
279720.00 5600840.00 524.66
279740.00 5600840.00 524.32
279760.00 5600840.00 524.28
279780.00 5600840.00 523.75
279800.00 5600840.00 523.49
279820.00 5600840.00 523.07
279840.00 5600840.00 523.59
279860.00 5600840.00 524.83
279880.00 5600840.00 526.74
279900.00 5600840.00 527.17
279920.00 5600840.00 528.41
279940.00 5600840.00 528.45
279960.00 5600840.00 528.59
279980.00 5600840.00 528.34
279040.00 5600860.00 551.85
279060.00 5600860.00 551.37
279080.00 5600860.00 550.34
279100.00 5600860.00 549.46
279120.00 5600860.00 548.42
279140.00 5600860.00 547.54
279160.00 5600860.00 545.70
279180.00 5600860.00 544.27
279200.00 5600860.00 543.20
279220.00 5600860.00 541.78
279240.00 5600860.00 540.37
279260.00 5600860.00 539.04
279280.00 5600860.00 537.77
279300.00 5600860.00 537.01
279320.00 5600860.00 536.50
279340.00 5600860.00 536.19
279360.00 5600860.00 535.06
279380.00 5600860.00 534.17
279400.00 5600860.00 533.33
279420.00 5600860.00 532.69
279440.00 5600860.00 532.15
279460.00 5600860.00 531.17
279480.00 5600860.00 530.77
279500.00 5600860.00 530.18
279520.00 5600860.00 529.63
279540.00 5600860.00 528.88
279560.00 5600860.00 528.40
279580.00 5600860.00 527.87
279600.00 5600860.00 527.48
279620.00 5600860.00 526.95
279640.00 5600860.00 526.68
279660.00 5600860.00 526.02
279680.00 5600860.00 525.35
279700.00 5600860.00 524.92
279720.00 5600860.00 524.83
279740.00 5600860.00 525.01
279760.00 5600860.00 524.36
279780.00 5600860.00 524.05
279800.00 5600860.00 523.86
279820.00 5600860.00 524.94
279840.00 5600860.00 527.74
279860.00 5600860.00 529.23
279880.00 5600860.00 530.10
279900.00 5600860.00 530.28
279920.00 5600860.00 530.04
279940.00 5600860.00 529.64
279960.00 5600860.00 529.18
279980.00 5600860.00 528.81
279040.00 5600880.00 550.93
279060.00 5600880.00 550.59
279080.00 5600880.00 549.82
279100.00 5600880.00 549.35
279120.00 5600880.00 548.31
279140.00 5600880.00 547.32
279160.00 5600880.00 545.85
279180.00 5600880.00 544.47
279200.00 5600880.00 543.57
279220.00 5600880.00 541.75
279240.00 5600880.00 540.69
279260.00 5600880.00 539.54
279280.00 5600880.00 538.53
279300.00 5600880.00 537.51
279320.00 5600880.00 536.84
279340.00 5600880.00 536.19
279360.00 5600880.00 534.96
279380.00 5600880.00 534.16
279400.00 5600880.00 533.22
279420.00 5600880.00 532.51
279440.00 5600880.00 532.25
279460.00 5600880.00 531.50
279480.00 5600880.00 530.83
279500.00 5600880.00 530.37
279520.00 5600880.00 529.85
279540.00 5600880.00 529.12
279560.00 5600880.00 528.95
279580.00 5600880.00 528.38
279600.00 5600880.00 527.89
279620.00 5600880.00 527.73
279640.00 5600880.00 526.92
279660.00 5600880.00 526.43
279680.00 5600880.00 525.85
279700.00 5600880.00 525.52
279720.00 5600880.00 525.28
279740.00 5600880.00 525.10
279760.00 5600880.00 525.02
279780.00 5600880.00 524.88
279800.00 5600880.00 525.98
279820.00 5600880.00 528.14
279840.00 5600880.00 529.45
279860.00 5600880.00 530.22
279880.00 5600880.00 530.58
279900.00 5600880.00 530.49
279920.00 5600880.00 530.20
279940.00 5600880.00 529.86
279960.00 5600880.00 529.46
279980.00 5600880.00 529.07
279040.00 5600900.00 549.00
279060.00 5600900.00 549.19
279080.00 5600900.00 548.89
279100.00 5600900.00 548.68
279120.00 5600900.00 547.92
279140.00 5600900.00 547.13
279160.00 5600900.00 545.74
279180.00 5600900.00 544.57
279200.00 5600900.00 543.34
279220.00 5600900.00 542.08
279240.00 5600900.00 540.74
279260.00 5600900.00 539.81
279280.00 5600900.00 538.73
279300.00 5600900.00 537.70
279320.00 5600900.00 536.80
279340.00 5600900.00 535.93
279360.00 5600900.00 535.09
279380.00 5600900.00 534.15
279400.00 5600900.00 533.23
279420.00 5600900.00 532.77
279440.00 5600900.00 532.07
279460.00 5600900.00 531.53
279480.00 5600900.00 530.99
279500.00 5600900.00 530.53
279520.00 5600900.00 530.05
279540.00 5600900.00 529.47
279560.00 5600900.00 529.24
279580.00 5600900.00 528.78
279600.00 5600900.00 528.24
279620.00 5600900.00 528.05
279640.00 5600900.00 527.97
279660.00 5600900.00 527.64
279680.00 5600900.00 526.89
279700.00 5600900.00 526.39
279720.00 5600900.00 525.76
279740.00 5600900.00 525.73
279760.00 5600900.00 525.53
279780.00 5600900.00 525.69
279800.00 5600900.00 527.35
279820.00 5600900.00 528.62
279840.00 5600900.00 529.81
279860.00 5600900.00 530.29
279880.00 5600900.00 530.39
279900.00 5600900.00 529.92
279920.00 5600900.00 529.86
279940.00 5600900.00 529.42
279960.00 5600900.00 529.13
279980.00 5600900.00 528.95
279040.00 5600920.00 547.37
279060.00 5600920.00 547.37
279080.00 5600920.00 547.21
279100.00 5600920.00 547.28
279120.00 5600920.00 547.18
279140.00 5600920.00 546.79
279160.00 5600920.00 545.57
279180.00 5600920.00 544.65
279200.00 5600920.00 543.59
279220.00 5600920.00 542.26
279240.00 5600920.00 541.02
279260.00 5600920.00 540.26
279280.00 5600920.00 538.78
279300.00 5600920.00 537.21
279320.00 5600920.00 536.64
279340.00 5600920.00 536.04
279360.00 5600920.00 535.67
279380.00 5600920.00 534.70
279400.00 5600920.00 533.69
279420.00 5600920.00 532.79
279440.00 5600920.00 532.16
279460.00 5600920.00 531.72
279480.00 5600920.00 531.24
279500.00 5600920.00 530.60
279520.00 5600920.00 530.31
279540.00 5600920.00 530.15
279560.00 5600920.00 529.88
279580.00 5600920.00 529.58
279600.00 5600920.00 529.32
279620.00 5600920.00 528.86
279640.00 5600920.00 528.54
279660.00 5600920.00 527.97
279680.00 5600920.00 527.33
279700.00 5600920.00 526.76
279720.00 5600920.00 526.27
279740.00 5600920.00 526.16
279760.00 5600920.00 526.07
279780.00 5600920.00 526.41
279800.00 5600920.00 527.63
279820.00 5600920.00 528.58
279840.00 5600920.00 529.38
279860.00 5600920.00 529.92
279880.00 5600920.00 530.03
279900.00 5600920.00 530.03
279920.00 5600920.00 529.10
279940.00 5600920.00 528.96
279960.00 5600920.00 528.71
279980.00 5600920.00 528.53
279040.00 5600940.00 546.75
279060.00 5600940.00 546.52
279080.00 5600940.00 546.30
279100.00 5600940.00 546.04
279120.00 5600940.00 546.09
279140.00 5600940.00 546.06
279160.00 5600940.00 545.22
279180.00 5600940.00 544.47
279200.00 5600940.00 543.40
279220.00 5600940.00 541.59
279240.00 5600940.00 540.35
279260.00 5600940.00 539.83
279280.00 5600940.00 538.44
279300.00 5600940.00 537.56
279320.00 5600940.00 537.05
279340.00 5600940.00 536.30
279360.00 5600940.00 535.21
279380.00 5600940.00 534.52
279400.00 5600940.00 534.18
279420.00 5600940.00 534.17
279440.00 5600940.00 532.42
279460.00 5600940.00 531.99
279480.00 5600940.00 531.45
279500.00 5600940.00 531.29
279520.00 5600940.00 531.08
279540.00 5600940.00 530.61
279560.00 5600940.00 530.34
279580.00 5600940.00 530.28
279600.00 5600940.00 530.23
279620.00 5600940.00 529.17
279640.00 5600940.00 529.27
279660.00 5600940.00 528.49
279680.00 5600940.00 527.88
279700.00 5600940.00 527.31
279720.00 5600940.00 526.66
279740.00 5600940.00 526.67
279760.00 5600940.00 526.57
279780.00 5600940.00 526.92
279800.00 5600940.00 527.55
279820.00 5600940.00 528.59
279840.00 5600940.00 529.22
279860.00 5600940.00 529.77
279880.00 5600940.00 529.95
279900.00 5600940.00 529.68
279920.00 5600940.00 529.12
279940.00 5600940.00 528.98
279960.00 5600940.00 529.03
279980.00 5600940.00 528.61
279020.00 5600960.00 547.15
279040.00 5600960.00 546.49
279060.00 5600960.00 545.83
279080.00 5600960.00 545.55
279100.00 5600960.00 545.70
279120.00 5600960.00 545.28
279140.00 5600960.00 544.84
279160.00 5600960.00 543.63
279180.00 5600960.00 543.09
279200.00 5600960.00 542.55
279220.00 5600960.00 540.80
279240.00 5600960.00 539.97
279260.00 5600960.00 539.26
279280.00 5600960.00 538.08
279300.00 5600960.00 537.67
279320.00 5600960.00 536.85
279340.00 5600960.00 536.61
279360.00 5600960.00 535.43
279380.00 5600960.00 535.36
279400.00 5600960.00 534.93
279420.00 5600960.00 534.38
279440.00 5600960.00 533.63
279460.00 5600960.00 532.74
279480.00 5600960.00 532.15
279500.00 5600960.00 532.04
279520.00 5600960.00 532.19
279540.00 5600960.00 531.97
279560.00 5600960.00 531.71
279580.00 5600960.00 531.25
279600.00 5600960.00 530.54
279620.00 5600960.00 530.28
279640.00 5600960.00 529.61
279660.00 5600960.00 528.76
279680.00 5600960.00 528.29
279700.00 5600960.00 527.84
279720.00 5600960.00 527.47
279740.00 5600960.00 527.33
279760.00 5600960.00 527.44
279780.00 5600960.00 527.62
279800.00 5600960.00 527.98
279820.00 5600960.00 528.72
279840.00 5600960.00 529.06
279860.00 5600960.00 529.16
279880.00 5600960.00 529.25
279900.00 5600960.00 529.35
279920.00 5600960.00 528.96
279940.00 5600960.00 528.55
279960.00 5600960.00 528.54
279980.00 5600960.00 528.73
279020.00 5600980.00 546.71
279040.00 5600980.00 546.03
279060.00 5600980.00 545.65
279080.00 5600980.00 545.33
279100.00 5600980.00 545.14
279120.00 5600980.00 546.45
279140.00 5600980.00 543.75
279160.00 5600980.00 543.31
279180.00 5600980.00 542.54
279200.00 5600980.00 541.71
279220.00 5600980.00 540.67
279240.00 5600980.00 539.86
279260.00 5600980.00 539.19
279280.00 5600980.00 538.82
279300.00 5600980.00 538.19
279320.00 5600980.00 537.56
279340.00 5600980.00 536.95
279360.00 5600980.00 536.29
279380.00 5600980.00 536.03
279400.00 5600980.00 534.98
279420.00 5600980.00 535.13
279440.00 5600980.00 534.44
279460.00 5600980.00 533.78
279480.00 5600980.00 533.27
279500.00 5600980.00 533.11
279520.00 5600980.00 532.80
279540.00 5600980.00 533.14
279560.00 5600980.00 532.76
279580.00 5600980.00 532.28
279600.00 5600980.00 531.60
279620.00 5600980.00 530.87
279640.00 5600980.00 530.54
279660.00 5600980.00 528.82
279680.00 5600980.00 528.87
279700.00 5600980.00 528.42
279720.00 5600980.00 528.13
279740.00 5600980.00 528.18
279760.00 5600980.00 528.12
279780.00 5600980.00 528.37
279800.00 5600980.00 528.62
279820.00 5600980.00 528.95
279840.00 5600980.00 529.44
279860.00 5600980.00 529.34
279880.00 5600980.00 529.38
279900.00 5600980.00 529.46
279920.00 5600980.00 529.27
279940.00 5600980.00 529.43
279960.00 5600980.00 529.32
279980.00 5600980.00 529.35
279000.00 5601000.00 548.42
279020.00 5601000.00 547.14
279040.00 5601000.00 546.10
279060.00 5601000.00 545.59
279080.00 5601000.00 545.23
279100.00 5601000.00 545.09
279120.00 5601000.00 545.09
279140.00 5601000.00 544.09
279160.00 5601000.00 543.40
279180.00 5601000.00 542.70
279200.00 5601000.00 542.06
279220.00 5601000.00 541.43
279240.00 5601000.00 540.39
279260.00 5601000.00 539.82
279280.00 5601000.00 539.26
279300.00 5601000.00 538.40
279320.00 5601000.00 537.88
279340.00 5601000.00 537.56
279360.00 5601000.00 537.53
279380.00 5601000.00 537.01
279400.00 5601000.00 536.80
279420.00 5601000.00 535.94
279440.00 5601000.00 535.37
279460.00 5601000.00 535.10
279480.00 5601000.00 534.10
279500.00 5601000.00 533.96
279520.00 5601000.00 533.72
279540.00 5601000.00 533.94
279560.00 5601000.00 533.58
279580.00 5601000.00 532.95
279600.00 5601000.00 532.35
279620.00 5601000.00 531.79
279640.00 5601000.00 530.85
279660.00 5601000.00 529.76
279680.00 5601000.00 529.34
279700.00 5601000.00 529.08
279720.00 5601000.00 528.62
279740.00 5601000.00 528.90
279760.00 5601000.00 528.98
279780.00 5601000.00 528.92
279800.00 5601000.00 529.24
279820.00 5601000.00 529.60
279840.00 5601000.00 529.82
279860.00 5601000.00 529.89
279880.00 5601000.00 530.00
279900.00 5601000.00 529.93
279920.00 5601000.00 529.78
279940.00 5601000.00 529.77
279960.00 5601000.00 529.92
279980.00 5601000.00 530.14
279000.00 5601020.00 549.35
279020.00 5601020.00 548.04
279040.00 5601020.00 547.65
279060.00 5601020.00 547.16
279080.00 5601020.00 546.31
279100.00 5601020.00 547.35
279120.00 5601020.00 545.62
279140.00 5601020.00 544.87
279160.00 5601020.00 543.71
279180.00 5601020.00 543.47
279200.00 5601020.00 543.34
279220.00 5601020.00 542.79
279240.00 5601020.00 541.93
279260.00 5601020.00 540.79
279280.00 5601020.00 540.43
279300.00 5601020.00 539.80
279320.00 5601020.00 539.22
279340.00 5601020.00 538.43
279360.00 5601020.00 538.08
279380.00 5601020.00 537.92
279400.00 5601020.00 537.49
279420.00 5601020.00 536.79
279440.00 5601020.00 535.97
279460.00 5601020.00 535.56
279480.00 5601020.00 535.25
279500.00 5601020.00 535.66
279520.00 5601020.00 535.14
279540.00 5601020.00 534.61
279560.00 5601020.00 534.21
279580.00 5601020.00 533.69
279600.00 5601020.00 533.13
279620.00 5601020.00 532.61
279640.00 5601020.00 531.85
279660.00 5601020.00 530.63
279680.00 5601020.00 530.37
279700.00 5601020.00 529.57
279720.00 5601020.00 529.64
279740.00 5601020.00 529.54
279760.00 5601020.00 529.59
279780.00 5601020.00 529.74
279800.00 5601020.00 530.07
279820.00 5601020.00 529.89
279840.00 5601020.00 530.08
279860.00 5601020.00 530.43
279880.00 5601020.00 530.93
279900.00 5601020.00 530.98
279920.00 5601020.00 531.04
279940.00 5601020.00 531.11
279960.00 5601020.00 530.70
279980.00 5601020.00 530.64
278980.00 5601040.00 551.09
279000.00 5601040.00 550.14
279020.00 5601040.00 549.58
279040.00 5601040.00 548.92
279060.00 5601040.00 548.68
279080.00 5601040.00 548.33
279100.00 5601040.00 547.78
279120.00 5601040.00 546.08
279140.00 5601040.00 545.70
279160.00 5601040.00 544.47
279180.00 5601040.00 544.54
279200.00 5601040.00 544.66
279220.00 5601040.00 543.98
279240.00 5601040.00 543.09
279260.00 5601040.00 542.37
279280.00 5601040.00 541.40
279300.00 5601040.00 540.86
279320.00 5601040.00 539.93
279340.00 5601040.00 539.33
279360.00 5601040.00 538.76
279380.00 5601040.00 538.70
279400.00 5601040.00 538.06
279420.00 5601040.00 537.53
279440.00 5601040.00 536.96
279460.00 5601040.00 536.55
279480.00 5601040.00 536.53
279500.00 5601040.00 536.50
279520.00 5601040.00 536.03
279540.00 5601040.00 535.29
279560.00 5601040.00 534.86
279580.00 5601040.00 534.54
279600.00 5601040.00 533.97
279620.00 5601040.00 533.13
279640.00 5601040.00 532.23
279660.00 5601040.00 531.80
279680.00 5601040.00 531.45
279700.00 5601040.00 530.90
279720.00 5601040.00 530.59
279740.00 5601040.00 530.22
279760.00 5601040.00 530.18
279780.00 5601040.00 530.24
279800.00 5601040.00 530.41
279820.00 5601040.00 530.53
279840.00 5601040.00 530.60
279860.00 5601040.00 531.15
279880.00 5601040.00 531.42
279900.00 5601040.00 531.50
279920.00 5601040.00 531.59
279940.00 5601040.00 531.74
279960.00 5601040.00 531.67
279980.00 5601040.00 531.74
278960.00 5601060.00 555.40
278980.00 5601060.00 552.19
279000.00 5601060.00 551.29
279020.00 5601060.00 550.67
279040.00 5601060.00 550.72
279060.00 5601060.00 549.60
279080.00 5601060.00 549.26
279100.00 5601060.00 548.34
279120.00 5601060.00 547.39
279140.00 5601060.00 546.63
279160.00 5601060.00 545.85
279180.00 5601060.00 545.93
279200.00 5601060.00 545.98
279220.00 5601060.00 545.36
279240.00 5601060.00 544.34
279260.00 5601060.00 543.70
279280.00 5601060.00 543.00
279300.00 5601060.00 542.22
279320.00 5601060.00 541.48
279340.00 5601060.00 540.39
279360.00 5601060.00 539.86
279380.00 5601060.00 539.69
279400.00 5601060.00 539.05
279420.00 5601060.00 538.32
279440.00 5601060.00 538.36
279460.00 5601060.00 538.10
279480.00 5601060.00 537.72
279500.00 5601060.00 537.14
279520.00 5601060.00 536.67
279540.00 5601060.00 536.25
279560.00 5601060.00 535.47
279580.00 5601060.00 534.98
279600.00 5601060.00 534.43
279620.00 5601060.00 534.03
279640.00 5601060.00 532.97
279660.00 5601060.00 532.85
279680.00 5601060.00 532.54
279700.00 5601060.00 532.29
279720.00 5601060.00 531.79
279740.00 5601060.00 531.38
279760.00 5601060.00 531.08
279780.00 5601060.00 531.13
279800.00 5601060.00 530.90
279820.00 5601060.00 530.99
279840.00 5601060.00 531.29
279860.00 5601060.00 531.64
279880.00 5601060.00 532.02
279900.00 5601060.00 532.18
279920.00 5601060.00 532.35
279940.00 5601060.00 532.49
279960.00 5601060.00 532.44
279980.00 5601060.00 532.46
278960.00 5601080.00 554.32
278980.00 5601080.00 555.54
279000.00 5601080.00 552.82
279020.00 5601080.00 552.37
279040.00 5601080.00 551.69
279060.00 5601080.00 550.64
279080.00 5601080.00 549.87
279100.00 5601080.00 549.53
279120.00 5601080.00 548.17
279140.00 5601080.00 547.33
279160.00 5601080.00 546.96
279180.00 5601080.00 546.80
279200.00 5601080.00 546.86
279220.00 5601080.00 546.54
279240.00 5601080.00 545.10
279260.00 5601080.00 544.19
279280.00 5601080.00 543.63
279300.00 5601080.00 542.87
279320.00 5601080.00 542.05
279340.00 5601080.00 541.34
279360.00 5601080.00 540.91
279380.00 5601080.00 540.49
279400.00 5601080.00 539.90
279420.00 5601080.00 539.41
279440.00 5601080.00 538.89
279460.00 5601080.00 538.74
279480.00 5601080.00 538.36
279500.00 5601080.00 537.89
279520.00 5601080.00 537.22
279540.00 5601080.00 536.80
279560.00 5601080.00 536.14
279580.00 5601080.00 535.82
279600.00 5601080.00 535.21
279620.00 5601080.00 534.45
279640.00 5601080.00 533.97
279660.00 5601080.00 533.50
279680.00 5601080.00 533.37
279700.00 5601080.00 533.27
279720.00 5601080.00 533.12
279740.00 5601080.00 532.48
279760.00 5601080.00 532.28
279780.00 5601080.00 532.04
279800.00 5601080.00 531.87
279820.00 5601080.00 531.86
279840.00 5601080.00 532.03
279860.00 5601080.00 532.33
279880.00 5601080.00 532.72
279900.00 5601080.00 532.85
279920.00 5601080.00 533.00
279940.00 5601080.00 533.38
279960.00 5601080.00 533.23
279980.00 5601080.00 533.17
278940.00 5601100.00 555.62
278960.00 5601100.00 555.17
278980.00 5601100.00 554.57
279000.00 5601100.00 554.40
279020.00 5601100.00 553.76
279040.00 5601100.00 552.84
279060.00 5601100.00 552.18
279080.00 5601100.00 551.22
279100.00 5601100.00 550.24
279120.00 5601100.00 549.60
279140.00 5601100.00 548.65
279160.00 5601100.00 548.26
279180.00 5601100.00 548.18
279200.00 5601100.00 547.62
279220.00 5601100.00 547.36
279240.00 5601100.00 546.35
279260.00 5601100.00 545.40
279280.00 5601100.00 544.56
279300.00 5601100.00 543.69
279320.00 5601100.00 542.90
279340.00 5601100.00 542.35
279360.00 5601100.00 541.79
279380.00 5601100.00 541.15
279400.00 5601100.00 540.66
279420.00 5601100.00 540.40
279440.00 5601100.00 539.79
279460.00 5601100.00 539.70
279480.00 5601100.00 539.18
279500.00 5601100.00 538.64
279520.00 5601100.00 538.00
279540.00 5601100.00 537.49
279560.00 5601100.00 536.85
279580.00 5601100.00 536.29
279600.00 5601100.00 535.67
279620.00 5601100.00 534.14
279640.00 5601100.00 534.59
279660.00 5601100.00 534.39
279680.00 5601100.00 534.59
279700.00 5601100.00 534.20
279720.00 5601100.00 533.92
279740.00 5601100.00 533.60
279760.00 5601100.00 533.43
279780.00 5601100.00 532.83
279800.00 5601100.00 533.03
279820.00 5601100.00 532.90
279840.00 5601100.00 532.95
279860.00 5601100.00 533.07
279880.00 5601100.00 533.38
279900.00 5601100.00 533.59
279920.00 5601100.00 533.89
279940.00 5601100.00 533.99
279960.00 5601100.00 533.97
279980.00 5601100.00 533.87
278940.00 5601120.00 557.80
278960.00 5601120.00 556.90
278980.00 5601120.00 555.39
279000.00 5601120.00 555.37
279020.00 5601120.00 554.73
279040.00 5601120.00 553.75
279060.00 5601120.00 553.41
279080.00 5601120.00 552.62
279100.00 5601120.00 551.78
279120.00 5601120.00 550.74
279140.00 5601120.00 550.03
279160.00 5601120.00 549.60
279180.00 5601120.00 549.09
279200.00 5601120.00 548.54
279220.00 5601120.00 547.99
279240.00 5601120.00 547.49
279260.00 5601120.00 546.71
279280.00 5601120.00 545.72
279300.00 5601120.00 544.77
279320.00 5601120.00 544.00
279340.00 5601120.00 543.41
279360.00 5601120.00 542.60
279380.00 5601120.00 542.01
279400.00 5601120.00 541.45
279420.00 5601120.00 541.22
279440.00 5601120.00 541.01
279460.00 5601120.00 540.48
279480.00 5601120.00 539.76
279500.00 5601120.00 539.22
279520.00 5601120.00 538.58
279540.00 5601120.00 538.15
279560.00 5601120.00 537.44
279580.00 5601120.00 536.83
279600.00 5601120.00 535.64
279620.00 5601120.00 535.49
279640.00 5601120.00 534.98
279660.00 5601120.00 535.41
279680.00 5601120.00 535.53
279700.00 5601120.00 535.43
279720.00 5601120.00 535.20
279740.00 5601120.00 534.99
279760.00 5601120.00 534.63
279780.00 5601120.00 534.47
279800.00 5601120.00 534.22
279820.00 5601120.00 533.91
279840.00 5601120.00 533.95
279860.00 5601120.00 534.02
279880.00 5601120.00 534.16
279900.00 5601120.00 534.33
279920.00 5601120.00 534.67
279940.00 5601120.00 534.67
279960.00 5601120.00 534.55
279980.00 5601120.00 534.37
278920.00 5601140.00 560.10
278940.00 5601140.00 559.03
278960.00 5601140.00 558.26
278980.00 5601140.00 557.47
279000.00 5601140.00 556.32
279020.00 5601140.00 556.07
279040.00 5601140.00 555.19
279060.00 5601140.00 554.52
279080.00 5601140.00 553.78
279100.00 5601140.00 552.98
279120.00 5601140.00 552.19
279140.00 5601140.00 551.33
279160.00 5601140.00 550.64
279180.00 5601140.00 550.28
279200.00 5601140.00 549.67
279220.00 5601140.00 548.70
279240.00 5601140.00 548.16
279260.00 5601140.00 547.61
279280.00 5601140.00 547.07
279300.00 5601140.00 545.93
279320.00 5601140.00 545.08
279340.00 5601140.00 544.27
279360.00 5601140.00 543.55
279380.00 5601140.00 542.88
279400.00 5601140.00 542.43
279420.00 5601140.00 542.10
279440.00 5601140.00 541.79
279460.00 5601140.00 541.16
279480.00 5601140.00 540.51
279500.00 5601140.00 539.74
279520.00 5601140.00 539.13
279540.00 5601140.00 538.65
279560.00 5601140.00 538.15
279580.00 5601140.00 537.43
279600.00 5601140.00 536.11
279620.00 5601140.00 536.54
279640.00 5601140.00 535.92
279660.00 5601140.00 536.23
279680.00 5601140.00 536.45
279700.00 5601140.00 536.34
279720.00 5601140.00 536.11
279740.00 5601140.00 535.95
279760.00 5601140.00 535.49
279780.00 5601140.00 535.40
279800.00 5601140.00 535.21
279820.00 5601140.00 534.98
279840.00 5601140.00 534.98
279860.00 5601140.00 534.97
279880.00 5601140.00 535.03
279900.00 5601140.00 535.18
279920.00 5601140.00 535.46
279940.00 5601140.00 535.39
279960.00 5601140.00 535.22
279980.00 5601140.00 534.88
278920.00 5601160.00 561.52
278940.00 5601160.00 560.58
278960.00 5601160.00 559.77
278980.00 5601160.00 558.95
279000.00 5601160.00 557.98
279020.00 5601160.00 557.01
279040.00 5601160.00 556.35
279060.00 5601160.00 555.58
279080.00 5601160.00 554.90
279100.00 5601160.00 554.01
279120.00 5601160.00 553.26
279140.00 5601160.00 552.71
279160.00 5601160.00 551.82
279180.00 5601160.00 551.14
279200.00 5601160.00 550.52
279220.00 5601160.00 549.86
279240.00 5601160.00 548.80
279260.00 5601160.00 548.03
279280.00 5601160.00 547.75
279300.00 5601160.00 547.13
279320.00 5601160.00 546.13
279340.00 5601160.00 545.24
279360.00 5601160.00 544.55
279380.00 5601160.00 543.90
279400.00 5601160.00 543.54
279420.00 5601160.00 542.74
279440.00 5601160.00 542.43
279460.00 5601160.00 541.72
279480.00 5601160.00 541.01
279500.00 5601160.00 540.49
279520.00 5601160.00 539.67
279540.00 5601160.00 539.07
279560.00 5601160.00 538.43
279580.00 5601160.00 537.64
279600.00 5601160.00 536.56
279620.00 5601160.00 537.23
279640.00 5601160.00 537.29
279660.00 5601160.00 537.41
279680.00 5601160.00 537.28
279700.00 5601160.00 537.35
279720.00 5601160.00 537.22
279740.00 5601160.00 537.09
279760.00 5601160.00 536.63
279780.00 5601160.00 536.43
279800.00 5601160.00 536.10
279820.00 5601160.00 535.99
279840.00 5601160.00 535.95
279860.00 5601160.00 535.80
279880.00 5601160.00 535.95
279900.00 5601160.00 535.92
279920.00 5601160.00 536.21
279940.00 5601160.00 535.97
279960.00 5601160.00 535.71
279980.00 5601160.00 535.42
278900.00 5601180.00 563.78
278920.00 5601180.00 562.96
278940.00 5601180.00 562.19
278960.00 5601180.00 561.72
278980.00 5601180.00 560.49
279000.00 5601180.00 559.74
279020.00 5601180.00 558.29
279040.00 5601180.00 557.54
279060.00 5601180.00 556.85
279080.00 5601180.00 555.95
279100.00 5601180.00 555.31
279120.00 5601180.00 554.49
279140.00 5601180.00 553.68
279160.00 5601180.00 552.76
279180.00 5601180.00 551.99
279200.00 5601180.00 551.26
279220.00 5601180.00 550.54
279240.00 5601180.00 549.82
279260.00 5601180.00 548.95
279280.00 5601180.00 548.26
279300.00 5601180.00 547.83
279320.00 5601180.00 547.15
279340.00 5601180.00 546.37
279360.00 5601180.00 545.58
279380.00 5601180.00 544.82
279400.00 5601180.00 544.20
279420.00 5601180.00 543.69
279440.00 5601180.00 542.91
279460.00 5601180.00 542.33
279480.00 5601180.00 541.72
279500.00 5601180.00 541.02
279520.00 5601180.00 540.29
279540.00 5601180.00 539.52
279560.00 5601180.00 538.83
279580.00 5601180.00 537.92
279600.00 5601180.00 536.89
279620.00 5601180.00 537.54
279640.00 5601180.00 538.20
279660.00 5601180.00 538.39
279680.00 5601180.00 538.24
279700.00 5601180.00 538.34
279720.00 5601180.00 538.37
279740.00 5601180.00 538.64
279760.00 5601180.00 538.01
279780.00 5601180.00 537.63
279800.00 5601180.00 537.17
279820.00 5601180.00 537.03
279840.00 5601180.00 536.98
279860.00 5601180.00 536.74
279880.00 5601180.00 536.92
279900.00 5601180.00 536.93
279920.00 5601180.00 536.90
279940.00 5601180.00 536.70
279960.00 5601180.00 536.39
279980.00 5601180.00 535.98
278900.00 5601200.00 564.91
278920.00 5601200.00 564.27
278940.00 5601200.00 563.72
278960.00 5601200.00 563.30
278980.00 5601200.00 561.01
279000.00 5601200.00 561.76
279020.00 5601200.00 560.21
279040.00 5601200.00 558.77
279060.00 5601200.00 557.98
279080.00 5601200.00 557.14
279100.00 5601200.00 556.30
279120.00 5601200.00 555.59
279140.00 5601200.00 554.66
279160.00 5601200.00 553.92
279180.00 5601200.00 552.79
279200.00 5601200.00 552.26
279220.00 5601200.00 551.20
279240.00 5601200.00 550.39
279260.00 5601200.00 549.88
279280.00 5601200.00 548.80
279300.00 5601200.00 548.33
279320.00 5601200.00 548.04
279340.00 5601200.00 547.03
279360.00 5601200.00 546.41
279380.00 5601200.00 545.64
279400.00 5601200.00 544.96
279420.00 5601200.00 544.30
279440.00 5601200.00 543.60
279460.00 5601200.00 542.89
279480.00 5601200.00 542.41
279500.00 5601200.00 541.68
279520.00 5601200.00 540.79
279540.00 5601200.00 540.06
279560.00 5601200.00 539.23
279580.00 5601200.00 538.37
279600.00 5601200.00 537.42
279620.00 5601200.00 537.98
279640.00 5601200.00 538.91
279660.00 5601200.00 539.21
279680.00 5601200.00 539.27
279700.00 5601200.00 539.87
279720.00 5601200.00 539.70
279740.00 5601200.00 540.03
279760.00 5601200.00 539.82
279780.00 5601200.00 539.41
279800.00 5601200.00 538.80
279820.00 5601200.00 538.45
279840.00 5601200.00 538.21
279860.00 5601200.00 537.81
279880.00 5601200.00 537.86
279900.00 5601200.00 537.84
279920.00 5601200.00 537.84
279940.00 5601200.00 537.59
279960.00 5601200.00 537.18
279980.00 5601200.00 536.53
278880.00 5601220.00 566.36
278900.00 5601220.00 565.60
278920.00 5601220.00 565.28
278940.00 5601220.00 564.84
278960.00 5601220.00 564.41
278980.00 5601220.00 563.22
279000.00 5601220.00 563.18
279020.00 5601220.00 561.93
279040.00 5601220.00 560.79
279060.00 5601220.00 559.42
279080.00 5601220.00 558.26
279100.00 5601220.00 557.47
279120.00 5601220.00 556.45
279140.00 5601220.00 555.74
279160.00 5601220.00 554.80
279180.00 5601220.00 553.77
279200.00 5601220.00 552.88
279220.00 5601220.00 551.85
279240.00 5601220.00 550.87
279260.00 5601220.00 550.36
279280.00 5601220.00 549.72
279300.00 5601220.00 548.63
279320.00 5601220.00 548.43
279340.00 5601220.00 547.87
279360.00 5601220.00 547.01
279380.00 5601220.00 546.04
279400.00 5601220.00 545.51
279420.00 5601220.00 544.67
279440.00 5601220.00 543.96
279460.00 5601220.00 543.13
279480.00 5601220.00 542.52
279500.00 5601220.00 541.82
279520.00 5601220.00 541.32
279540.00 5601220.00 540.47
279560.00 5601220.00 539.68
279580.00 5601220.00 538.92
279600.00 5601220.00 537.85
279620.00 5601220.00 538.43
279640.00 5601220.00 539.90
279660.00 5601220.00 539.99
279680.00 5601220.00 540.39
279700.00 5601220.00 540.32
279720.00 5601220.00 540.52
279740.00 5601220.00 540.73
279760.00 5601220.00 541.14
279780.00 5601220.00 541.48
279800.00 5601220.00 541.15
279820.00 5601220.00 540.54
279840.00 5601220.00 539.99
279860.00 5601220.00 539.20
279880.00 5601220.00 538.93
279900.00 5601220.00 538.81
279920.00 5601220.00 538.64
279940.00 5601220.00 538.38
279960.00 5601220.00 537.79
279980.00 5601220.00 537.15
278880.00 5601240.00 566.99
278900.00 5601240.00 566.55
278920.00 5601240.00 566.30
278940.00 5601240.00 565.87
278960.00 5601240.00 565.57
278980.00 5601240.00 564.36
279000.00 5601240.00 564.08
279020.00 5601240.00 562.94
279040.00 5601240.00 561.83
279060.00 5601240.00 560.70
279080.00 5601240.00 559.64
279100.00 5601240.00 558.68
279120.00 5601240.00 557.41
279140.00 5601240.00 556.70
279160.00 5601240.00 555.77
279180.00 5601240.00 555.01
279200.00 5601240.00 553.78
279220.00 5601240.00 552.72
279240.00 5601240.00 551.56
279260.00 5601240.00 550.99
279280.00 5601240.00 550.52
279300.00 5601240.00 549.10
279320.00 5601240.00 548.47
279340.00 5601240.00 548.22
279360.00 5601240.00 547.56
279380.00 5601240.00 546.84
279400.00 5601240.00 545.98
279420.00 5601240.00 545.01
279440.00 5601240.00 544.42
279460.00 5601240.00 543.57
279480.00 5601240.00 542.98
279500.00 5601240.00 541.87
279520.00 5601240.00 541.78
279540.00 5601240.00 540.83
279560.00 5601240.00 539.88
279580.00 5601240.00 539.15
279600.00 5601240.00 537.72
279620.00 5601240.00 538.93
279640.00 5601240.00 540.16
279660.00 5601240.00 540.63
279680.00 5601240.00 540.99
279700.00 5601240.00 541.19
279720.00 5601240.00 541.28
279740.00 5601240.00 541.39
279760.00 5601240.00 541.77
279780.00 5601240.00 542.19
279800.00 5601240.00 542.34
279820.00 5601240.00 542.45
279840.00 5601240.00 541.85
279860.00 5601240.00 540.97
279880.00 5601240.00 540.03
279900.00 5601240.00 539.64
279920.00 5601240.00 539.35
279940.00 5601240.00 538.89
279960.00 5601240.00 538.24
279980.00 5601240.00 537.66
278880.00 5601260.00 567.65
278900.00 5601260.00 567.61
278920.00 5601260.00 567.22
278940.00 5601260.00 566.61
278960.00 5601260.00 565.87
278980.00 5601260.00 565.36
279000.00 5601260.00 564.59
279020.00 5601260.00 563.76
279040.00 5601260.00 562.68
279060.00 5601260.00 561.68
279080.00 5601260.00 560.58
279100.00 5601260.00 559.81
279120.00 5601260.00 558.75
279140.00 5601260.00 557.68
279160.00 5601260.00 556.71
279180.00 5601260.00 555.80
279200.00 5601260.00 554.61
279220.00 5601260.00 553.56
279240.00 5601260.00 552.69
279260.00 5601260.00 551.51
279280.00 5601260.00 550.55
279300.00 5601260.00 549.65
279320.00 5601260.00 548.77
279340.00 5601260.00 548.24
279360.00 5601260.00 547.98
279380.00 5601260.00 547.32
279400.00 5601260.00 546.41
279420.00 5601260.00 545.27
279440.00 5601260.00 544.54
279460.00 5601260.00 543.85
279480.00 5601260.00 542.88
279500.00 5601260.00 542.18
279520.00 5601260.00 541.26
279540.00 5601260.00 540.60
279560.00 5601260.00 540.08
279580.00 5601260.00 539.45
279600.00 5601260.00 538.38
279620.00 5601260.00 539.38
279640.00 5601260.00 540.56
279660.00 5601260.00 541.17
279680.00 5601260.00 541.72
279700.00 5601260.00 541.83
279720.00 5601260.00 541.93
279740.00 5601260.00 542.09
279760.00 5601260.00 542.43
279780.00 5601260.00 542.64
279800.00 5601260.00 542.82
279820.00 5601260.00 543.05
279840.00 5601260.00 542.65
279860.00 5601260.00 541.83
279880.00 5601260.00 540.84
279900.00 5601260.00 540.18
279920.00 5601260.00 539.83
279940.00 5601260.00 539.36
279960.00 5601260.00 538.51
279980.00 5601260.00 537.82
278860.00 5601280.00 568.90
278880.00 5601280.00 568.33
278900.00 5601280.00 568.34
278920.00 5601280.00 567.78
278940.00 5601280.00 567.10
278960.00 5601280.00 566.48
278980.00 5601280.00 565.91
279000.00 5601280.00 565.23
279020.00 5601280.00 564.43
279040.00 5601280.00 563.59
279060.00 5601280.00 562.54
279080.00 5601280.00 561.45
279100.00 5601280.00 560.54
279120.00 5601280.00 559.55
279140.00 5601280.00 558.57
279160.00 5601280.00 557.67
279180.00 5601280.00 556.73
279200.00 5601280.00 555.65
279220.00 5601280.00 554.40
279240.00 5601280.00 553.36
279260.00 5601280.00 552.24
279280.00 5601280.00 551.10
279300.00 5601280.00 550.01
279320.00 5601280.00 549.13
279340.00 5601280.00 548.30
279360.00 5601280.00 547.60
279380.00 5601280.00 547.32
279400.00 5601280.00 546.55
279420.00 5601280.00 545.45
279440.00 5601280.00 544.47
279460.00 5601280.00 543.64
279480.00 5601280.00 542.84
279500.00 5601280.00 542.10
279520.00 5601280.00 541.46
279540.00 5601280.00 540.53
279560.00 5601280.00 539.96
279580.00 5601280.00 539.22
279600.00 5601280.00 539.19
279620.00 5601280.00 539.71
279640.00 5601280.00 540.82
279660.00 5601280.00 541.57
279680.00 5601280.00 542.03
279700.00 5601280.00 542.37
279720.00 5601280.00 542.69
279740.00 5601280.00 542.80
279760.00 5601280.00 543.14
279780.00 5601280.00 543.02
279800.00 5601280.00 543.21
279820.00 5601280.00 543.32
279840.00 5601280.00 542.83
279860.00 5601280.00 542.04
279880.00 5601280.00 541.33
279900.00 5601280.00 540.68
279920.00 5601280.00 540.20
279940.00 5601280.00 539.68
279960.00 5601280.00 538.81
279980.00 5601280.00 537.96
278860.00 5601300.00 570.10
278880.00 5601300.00 569.24
278900.00 5601300.00 569.09
278920.00 5601300.00 568.34
278940.00 5601300.00 567.64
278960.00 5601300.00 566.86
278980.00 5601300.00 566.44
279000.00 5601300.00 565.71
279020.00 5601300.00 564.85
279040.00 5601300.00 563.93
279060.00 5601300.00 563.02
279080.00 5601300.00 561.89
279100.00 5601300.00 560.85
279120.00 5601300.00 559.99
279140.00 5601300.00 559.02
279160.00 5601300.00 558.06
279180.00 5601300.00 557.03
279200.00 5601300.00 555.96
279220.00 5601300.00 555.17
279240.00 5601300.00 553.92
279260.00 5601300.00 553.01
279280.00 5601300.00 551.61
279300.00 5601300.00 550.45
279320.00 5601300.00 549.60
279340.00 5601300.00 548.57
279360.00 5601300.00 547.61
279380.00 5601300.00 547.00
279400.00 5601300.00 546.61
279420.00 5601300.00 545.70
279440.00 5601300.00 544.42
279460.00 5601300.00 543.66
279480.00 5601300.00 542.71
279500.00 5601300.00 541.83
279520.00 5601300.00 541.30
279540.00 5601300.00 539.95
279560.00 5601300.00 539.62
279580.00 5601300.00 540.00
279600.00 5601300.00 539.77
279620.00 5601300.00 540.26
279640.00 5601300.00 541.21
279660.00 5601300.00 541.72
279680.00 5601300.00 542.31
279700.00 5601300.00 542.89
279720.00 5601300.00 543.28
279740.00 5601300.00 543.49
279760.00 5601300.00 543.42
279780.00 5601300.00 543.36
279800.00 5601300.00 543.44
279820.00 5601300.00 543.21
279840.00 5601300.00 542.78
279860.00 5601300.00 542.24
279880.00 5601300.00 541.60
279900.00 5601300.00 541.08
279920.00 5601300.00 540.73
279940.00 5601300.00 540.31
279960.00 5601300.00 539.39
279980.00 5601300.00 538.32
278860.00 5601320.00 570.75
278880.00 5601320.00 569.87
278900.00 5601320.00 569.46
278920.00 5601320.00 568.87
278940.00 5601320.00 568.05
278960.00 5601320.00 567.29
278980.00 5601320.00 566.80
279000.00 5601320.00 566.14
279020.00 5601320.00 565.31
279040.00 5601320.00 564.49
279060.00 5601320.00 563.52
279080.00 5601320.00 562.47
279100.00 5601320.00 561.48
279120.00 5601320.00 560.52
279140.00 5601320.00 559.46
279160.00 5601320.00 558.61
279180.00 5601320.00 557.50
279200.00 5601320.00 556.51
279220.00 5601320.00 555.41
279240.00 5601320.00 554.45
279260.00 5601320.00 553.36
279280.00 5601320.00 552.10
279300.00 5601320.00 550.96
279320.00 5601320.00 549.80
279340.00 5601320.00 548.68
279360.00 5601320.00 547.64
279380.00 5601320.00 546.92
279400.00 5601320.00 546.45
279420.00 5601320.00 545.89
279440.00 5601320.00 544.85
279460.00 5601320.00 543.91
279480.00 5601320.00 542.76
279500.00 5601320.00 541.61
279520.00 5601320.00 541.21
279540.00 5601320.00 540.28
279560.00 5601320.00 540.57
279580.00 5601320.00 540.63
279600.00 5601320.00 540.63
279620.00 5601320.00 540.64
279640.00 5601320.00 541.20
279660.00 5601320.00 542.01
279680.00 5601320.00 542.41
279700.00 5601320.00 543.03
279720.00 5601320.00 543.35
279740.00 5601320.00 543.73
279760.00 5601320.00 543.82
279780.00 5601320.00 543.70
279800.00 5601320.00 543.52
279820.00 5601320.00 543.01
279840.00 5601320.00 542.63
279860.00 5601320.00 542.00
279880.00 5601320.00 541.68
279900.00 5601320.00 541.21
279920.00 5601320.00 541.06
279940.00 5601320.00 540.66
279960.00 5601320.00 539.79
279980.00 5601320.00 538.59
278860.00 5601340.00 571.30
278880.00 5601340.00 570.26
278900.00 5601340.00 569.66
278920.00 5601340.00 569.40
278940.00 5601340.00 568.44
278960.00 5601340.00 567.83
278980.00 5601340.00 567.17
279000.00 5601340.00 566.52
279020.00 5601340.00 565.88
279040.00 5601340.00 565.07
279060.00 5601340.00 564.17
279080.00 5601340.00 563.20
279100.00 5601340.00 562.09
279120.00 5601340.00 560.99
279140.00 5601340.00 560.04
279160.00 5601340.00 559.05
279180.00 5601340.00 557.90
279200.00 5601340.00 556.89
279220.00 5601340.00 555.78
279240.00 5601340.00 554.65
279260.00 5601340.00 553.55
279280.00 5601340.00 552.41
279300.00 5601340.00 551.26
279320.00 5601340.00 550.14
279340.00 5601340.00 549.06
279360.00 5601340.00 547.97
279380.00 5601340.00 546.99
279400.00 5601340.00 546.41
279420.00 5601340.00 546.26
279440.00 5601340.00 545.30
279460.00 5601340.00 544.20
279480.00 5601340.00 543.14
279500.00 5601340.00 542.30
279520.00 5601340.00 541.16
279540.00 5601340.00 541.03
279560.00 5601340.00 541.40
279580.00 5601340.00 541.12
279600.00 5601340.00 541.13
279620.00 5601340.00 541.14
279640.00 5601340.00 541.51
279660.00 5601340.00 541.94
279680.00 5601340.00 542.50
279700.00 5601340.00 542.98
279720.00 5601340.00 543.39
279740.00 5601340.00 543.88
279760.00 5601340.00 543.80
279780.00 5601340.00 543.81
279800.00 5601340.00 543.42
279820.00 5601340.00 542.91
279840.00 5601340.00 542.50
279860.00 5601340.00 541.96
279880.00 5601340.00 541.41
279900.00 5601340.00 541.00
279920.00 5601340.00 540.63
279940.00 5601340.00 540.04
279960.00 5601340.00 539.35
279980.00 5601340.00 538.40
278840.00 5601360.00 572.10
278860.00 5601360.00 571.53
278880.00 5601360.00 571.28
278900.00 5601360.00 569.89
278920.00 5601360.00 569.51
278940.00 5601360.00 568.14
278960.00 5601360.00 568.25
278980.00 5601360.00 567.50
279000.00 5601360.00 566.87
279020.00 5601360.00 566.41
279040.00 5601360.00 565.67
279060.00 5601360.00 564.85
279080.00 5601360.00 563.85
279100.00 5601360.00 562.73
279120.00 5601360.00 561.52
279140.00 5601360.00 560.54
279160.00 5601360.00 559.42
279180.00 5601360.00 558.41
279200.00 5601360.00 557.21
279220.00 5601360.00 556.04
279240.00 5601360.00 554.92
279260.00 5601360.00 553.90
279280.00 5601360.00 552.94
279300.00 5601360.00 551.66
279320.00 5601360.00 550.65
279340.00 5601360.00 549.42
279360.00 5601360.00 548.52
279380.00 5601360.00 547.65
279400.00 5601360.00 546.97
279420.00 5601360.00 546.57
279440.00 5601360.00 545.83
279460.00 5601360.00 544.75
279480.00 5601360.00 543.64
279500.00 5601360.00 542.85
279520.00 5601360.00 541.70
279540.00 5601360.00 541.91
279560.00 5601360.00 541.74
279580.00 5601360.00 541.67
279600.00 5601360.00 541.43
279620.00 5601360.00 541.44
279640.00 5601360.00 541.77
279660.00 5601360.00 542.16
279680.00 5601360.00 542.65
279700.00 5601360.00 543.04
279720.00 5601360.00 543.56
279740.00 5601360.00 543.75
279760.00 5601360.00 543.67
279780.00 5601360.00 543.60
279800.00 5601360.00 543.46
279820.00 5601360.00 543.18
279840.00 5601360.00 542.69
